-20.541216 58.996666 328.989990 0.000000 0.000000 0.000000 
19.738657 -12.909191 327.019989 0.698867 -0.273434 0.660923 
19.024609 -40.555050 285.050018 0.504223 -0.764664 -0.401309 
22.922529 58.801842 237.110016 0.118229 0.992348 0.035589 
-19.504400 59.473534 149.160004 -0.179958 0.983071 -0.034433 
43.779301 45.754955 234.060013 0.985641 0.026160 0.166815 
-21.533726 -40.648708 282.070007 -0.232044 -0.904345 -0.358211 
-15.593593 58.073040 288.040009 -0.384850 0.912357 0.139622 
22.019794 33.385723 192.090012 0.472252 -0.843108 -0.257190 
23.954054 31.897968 330.010010 0.959396 -0.022537 0.281161 
-19.657108 -8.552497 241.050003 -0.595703 -0.643879 -0.480164 
27.285330 28.390163 237.110016 0.796839 -0.579475 -0.171042 
18.129452 41.430988 151.130005 0.440214 -0.813856 -0.379277 
-34.759090 42.741714 241.050003 -0.990040 0.132458 -0.047714 
-21.598930 33.502914 146.180008 -0.092173 -0.943941 -0.316985 
21.651436 58.411232 148.150009 0.482816 0.765832 -0.424724 
9.660742 36.174587 354.010010 0.562478 -0.031465 0.826214 
11.150389 -3.655389 245.050003 0.490860 -0.675635 -0.550067 
21.774296 58.780491 191.130005 0.032441 0.999399 0.012213 
44.013542 46.370632 192.090012 0.792940 -0.566465 -0.224418 
-34.905148 40.592964 284.040009 -0.962694 0.239061 0.126770 
-16.713285 56.234379 235.080002 -0.165332 0.986114 0.015661 
43.993446 55.392849 223.080002 0.504734 0.857037 0.103587 
-9.615019 35.482407 353.000000 -0.331237 -0.026054 0.943188 
-19.319002 20.008421 184.150009 0.012257 -0.932322 -0.361421 
17.955204 -40.623569 324.040009 0.526358 -0.812129 0.251781 
43.927849 55.703331 200.090012 0.487931 0.865846 -0.110609 
-25.820728 31.021582 331.029999 -0.864273 0.363511 0.347697 
-44.500149 36.148762 190.119995 -0.988133 -0.146911 0.044840 
-43.302074 42.395790 166.119995 -0.972970 0.066698 -0.221090 
30.353056 31.405214 283.019989 0.992643 -0.085898 0.085337 
22.439873 58.772633 283.019989 0.380187 0.922951 0.060156 
20.838232 58.475765 328.989990 0.208565 0.914423 0.346887 
-20.969288 55.898525 121.159996 -0.327561 0.837301 -0.437757 
-21.730017 -13.730620 328.989990 -0.651835 -0.225353 0.724104 
-21.730190 42.400608 118.169998 0.038823 -0.641199 -0.766392 
20.779835 -13.780812 284.040009 0.974867 -0.205663 -0.085660 
-21.193937 59.076420 192.090012 -0.380805 0.923106 0.053511 
-20.309374 -40.554893 327.980011 -0.553653 -0.593317 0.584332 
-34.335152 -13.156571 280.040009 -0.986608 -0.162830 0.009528 
-18.333200 8.831289 206.119995 -0.715979 -0.683567 -0.141811 
0.336599 9.257038 213.110016 0.464913 -0.784178 -0.411000 
-38.548679 15.675851 268.029999 -0.856596 -0.410238 -0.312967 
0.056789 -40.662354 324.040009 0.387756 -0.639271 0.664062 
44.057987 56.519249 209.110016 0.676722 0.735387 0.035413 
20.960743 -1.758567 261.050018 0.887833 -0.454701 -0.070703 
37.494545 55.590904 258.060028 0.384678 0.914155 0.127841 
-33.556557 18.259050 306.010010 -0.862545 0.236564 0.447273 
40.542515 56.355831 164.150009 0.272938 0.949514 -0.154690 
-33.525620 44.636517 240.089996 -0.698056 0.693073 0.179908 
1.261629 58.792381 267.080017 -0.390992 0.917142 0.077308 
0.924311 58.666912 150.110001 -0.053716 0.997450 -0.046998 
-16.186659 43.539860 118.169998 -0.274930 -0.738185 -0.616033 
-33.444767 -34.701454 285.050018 -0.895408 -0.302369 -0.326831 
34.072136 38.101978 257.050018 0.966444 -0.085239 0.242321 
39.093697 44.377472 169.100006 0.561873 -0.747599 -0.354110 
-0.142635 58.848747 324.989990 0.446166 0.827343 0.341233 
-0.637810 58.752026 209.110016 -0.063446 0.997562 0.029051 
0.534362 -40.615307 267.080017 -0.051197 -0.849814 -0.524590 
-33.450001 -38.346203 304.040009 -0.623124 -0.649219 0.436155 
-0.300000 52.900002 354.010010 -0.776883 0.420321 0.468810 
-4.600508 34.520164 151.130005 0.203883 -0.897632 -0.390754 
-40.192749 53.217937 199.139999 -0.588305 0.805259 0.073855 
-40.598221 52.909279 145.160004 -0.520542 0.824170 -0.223115 
1.646252 29.787403 354.010010 -0.113740 -0.342466 0.932620 
-5.387018 53.295872 120.140007 0.464582 0.249783 -0.849571 
12.786370 4.981793 338.010010 0.820307 -0.158336 0.549569 
-0.637810 58.752026 209.110016 -0.063446 0.997562 0.029051 
0.534362 -40.615307 267.080017 -0.051197 -0.849814 -0.524590 
-33.450001 -38.346203 304.040009 -0.623124 -0.649219 0.436155 
-0.300000 52.900002 354.010010 -0.776883 0.420321 0.468810 
-4.600508 34.520164 151.130005 0.203883 -0.897632 -0.390754 
-40.192749 53.217937 199.139999 -0.588305 0.805259 0.073855 
-40.598221 52.909279 145.160004 -0.520542 0.824170 -0.223115 
1.646252 29.787403 354.010010 -0.113740 -0.342466 0.932620 
-5.387018 53.295872 120.140007 0.464582 0.249783 -0.849571 
12.786370 4.981793 338.010010 0.820307 -0.158336 0.549569 
-39.590645 35.983459 156.150009 -0.544729 -0.794755 -0.267647 
-0.519835 11.044726 209.110016 0.015026 -0.913533 -0.406486 
38.893223 38.923370 204.090012 0.781221 -0.608446 -0.139599 
-38.490479 24.199242 210.119995 -0.801844 -0.592532 -0.077149