1.511816 58.652641 237.110016 0.000000 0.000000 0.000000 
-32.353832 43.551243 271.080017 0.000000 0.000000 0.000000 
19.314899 10.872544 331.029999 0.000000 0.000000 0.000000 
1.083149 -40.621883 304.040009 0.000000 0.000000 0.000000 
-8.473905 41.241280 354.010010 0.000000 0.000000 0.000000 
-23.918217 58.010242 306.010010 0.000000 0.000000 0.000000 
20.722204 13.929724 241.050003 0.000000 0.000000 0.000000 
-1.025453 -40.589752 336.989990 0.000000 0.000000 0.000000 
-29.243002 58.982910 172.150009 0.000000 0.000000 0.000000 
6.269233 -26.732792 262.060028 0.000000 0.000000 0.000000 
1.040482 42.124653 357.113983 0.000000 0.000000 0.000000 
9.878070 27.042709 194.119995 0.000000 0.000000 0.000000 
-31.481716 37.509769 136.139999 0.000000 0.000000 0.000000 
19.275507 24.600000 210.119995 0.000000 0.000000 0.000000 
26.137358 -22.090111 305.050018 0.000000 0.000000 0.000000 
-15.505881 57.886150 287.019989 0.000000 0.000000 0.000000 
-33.844154 44.748692 238.060013 0.000000 0.000000 0.000000 
-29.734533 58.867168 137.160004 0.000000 0.000000 0.000000 
22.208111 -40.295151 305.050018 0.000000 0.000000 0.000000 
-5.613046 24.045002 183.130005 0.000000 0.000000 0.000000 
-4.621498 48.186470 121.159996 0.000000 0.000000 0.000000 
-27.527851 42.648098 335.980011 0.000000 0.000000 0.000000 
-1.614492 12.364709 206.119995 0.000000 0.000000 0.000000 
30.025620 58.736519 170.119995 0.000000 0.000000 0.000000 
22.193089 57.874207 331.980011 0.000000 0.000000 0.000000 
-28.165249 13.111578 206.119995 0.000000 0.000000 0.000000 
22.880690 57.886341 146.180008 0.000000 0.000000 0.000000 
30.424263 58.854439 204.090012 0.000000 0.000000 0.000000 
0.957471 39.867672 137.160004 0.000000 0.000000 0.000000 
-33.078011 42.461456 304.040009 0.000000 0.000000 0.000000 
33.299862 40.600002 271.080017 0.000000 0.000000 0.000000 
0.046158 58.821564 336.989990 0.000000 0.000000 0.000000 
-21.230015 -23.700941 330.010010 0.000000 0.000000 0.000000 
3.378349 35.216797 170.119995 0.000000 0.000000 0.000000 
31.038851 42.034649 304.040009 0.000000 0.000000 0.000000 
-32.686375 8.248670 237.110016 0.000000 0.000000 0.000000 
35.523464 36.121353 238.060013 0.000000 0.000000 0.000000 
-41.782722 46.875896 207.069992 0.000000 0.000000 0.000000 
23.764532 48.402744 146.180008 0.000000 0.000000 0.000000 
33.782520 35.750221 203.139999 0.000000 0.000000 0.000000 
-22.807877 58.019463 334.010010 0.000000 0.000000 0.000000 
-32.884968 9.346557 305.050018 0.000000 0.000000 0.000000 
-29.188683 22.159126 177.100006 0.000000 0.000000 0.000000 
-28.145103 58.733677 203.139999 0.000000 0.000000 0.000000 
0.261092 -40.617226 271.080017 0.000000 0.000000 0.000000 
1.370664 58.439022 136.139999 0.000000 0.000000 0.000000 
0.525221 58.850452 271.080017 0.000000 0.000000 0.000000 
31.075928 40.365536 171.130005 0.000000 0.000000 0.000000 
18.423771 -21.627821 327.980011 0.000000 0.000000 0.000000 
-36.159088 7.858285 270.070007 0.000000 0.000000 0.000000 
28.566019 58.557301 271.080017 0.000000 0.000000 0.000000 
16.894545 -40.287529 280.040009 0.000000 0.000000 0.000000 
-0.423751 58.874233 306.010010 0.000000 0.000000 0.000000 
-30.909994 -40.635319 304.040009 0.000000 0.000000 0.000000 
-45.493496 42.854782 184.150009 0.000000 0.000000 0.000000 
-21.392801 10.828268 332.989990 0.000000 0.000000 0.000000 
45.903927 48.999165 203.139999 0.000000 0.000000 0.000000 
-0.106016 58.796391 172.150009 0.000000 0.000000 0.000000 
27.606123 10.373343 271.080017 0.000000 0.000000 0.000000 
-6.394600 57.809448 238.060013 0.000000 0.000000 0.000000 
6.386654 1.768359 232.089996 0.000000 0.000000 0.000000 
18.548744 -22.627295 277.050018 0.000000 0.000000 0.000000 
-6.772082 57.791832 270.070007 0.000000 0.000000 0.000000 
-27.591600 45.274227 118.169998 0.000000 0.000000 0.000000 
7.159199 7.660490 343.980011 0.000000 0.000000 0.000000 
-34.517891 -22.191662 307.019989 0.000000 0.000000 0.000000 
-16.230892 57.834057 223.080002 0.000000 0.000000 0.000000 
24.314356 10.727967 304.040009 0.000000 0.000000 0.000000 
-30.131952 -22.233528 271.080017 0.000000 0.000000 0.000000 
2.536685 -23.997559 340.989990 0.000000 0.000000 0.000000 
-2.233001 -12.693604 245.050003 0.000000 0.000000 0.000000 
-43.289066 38.607971 169.100006 0.000000 0.000000 0.000000 
-25.692202 -40.675716 274.070007 0.000000 0.000000 0.000000 
-21.666380 -10.382488 246.060013 0.000000 0.000000 0.000000 
30.873867 58.897079 237.110016 0.000000 0.000000 0.000000 
15.799120 -40.570389 327.019989 0.000000 0.000000 0.000000 
-20.309374 -40.554893 327.980011 0.000000 0.000000 0.000000 
-45.500000 41.900002 193.100006 0.000000 0.000000 0.000000 
25.114096 58.098061 305.050018 0.000000 0.000000 0.000000 
1.141590 58.788578 205.100006 0.000000 0.000000 0.000000 
26.000805 43.144753 335.980011 0.000000 0.000000 0.000000